26.60122743,-1.03918061,17.00600707
26.77218033,3.11672891,17.00628098
26.29059617,7.33122970,17.00734743
25.15496564,11.51458638,17.00709571
23.35410283,15.55017640,17.00707510
20.87091940,19.31032686,17.00716868
17.74713731,22.65475881,17.00698587
14.02820939,25.44327898,17.00650572
9.82344719,27.53936889,17.00713829
5.27753322,28.86180899,17.00812627
0.53929021,29.37397986,17.00699223
-4.22387988,29.05190342,17.00578872
-8.86983437,27.92064203,17.00619537
-13.26223861,26.05616019,17.00653334
-17.28831526,23.50117794,17.00710372
-20.84802388,20.35634332,17.00719138
-23.86365258,16.69770438,17.00720808
-26.21182291,12.59137572,17.00705240
-27.80719180,8.17652686,17.00682041
-28.64765214,3.58164386,17.00723807
-28.67008072,-1.02579929,17.00706889
-27.85512497,-5.52415259,17.00667314
-26.30107304,-9.74851730,17.00657448
-24.07505869,-13.56645662,17.00667331
-21.24966747,-16.85710740,17.00683074
-17.98448954,-19.55795460,17.00731610
-14.43277868,-21.63765921,17.00691339
-10.71764067,-23.10734153,17.00701508
-6.92685660,-24.00102204,17.00713704
-3.16343504,-24.38403897,17.00641396
0.53298331,-24.33721286,17.00703467
4.14767173,-23.83497508,17.00713098
7.63776354,-22.90146034,17.00657306
11.01053760,-21.60065874,17.00702890
14.25464587,-19.91316673,17.00781453
17.29427656,-17.78466293,17.00745210
20.03829043,-15.20140102,17.00724086
22.45419926,-12.19159880,17.00630754
24.41305392,-8.79321844,17.00673820
25.80661588,-5.03433002,17.00725904
26.35546033,-1.02530921,13.23886297
26.48641351,3.08247467,13.23871172
25.97928983,7.23258343,13.23827112
24.84026067,11.35355166,13.23843522
23.04845156,15.33025972,13.23820230
20.59420778,19.02473124,13.23796710
17.51011980,22.33513073,13.23849347
13.85572403,25.10473912,13.23810116
9.70591921,27.20353370,13.23807076
5.21663098,28.53393921,13.23848871
0.53638127,29.06562059,13.23804203
-4.18886986,28.73567933,13.23794208
-8.77073942,27.59235830,13.23859250
-13.10533342,25.73994690,13.23816692
-17.08253233,23.22386538,13.23740724
-20.61439209,20.11444191,13.23894990
-23.60395534,16.50190351,13.23970867
-25.93814074,12.45513962,13.23836601
-27.55045422,8.09504302,13.23818441
-28.43000404,3.55944772,13.23911076
-28.49619783,-1.03466208,13.23931159
-27.71447256,-5.49345636,13.23811532
-26.18071810,-9.71528548,13.23787572
-23.98705678,-13.52185946,13.23837910
-21.19974052,-16.83360987,13.23764769
-17.96403459,-19.53991713,13.23823753
-14.43331563,-21.61775619,13.23844419
-10.70661918,-23.10024229,13.23888283
-6.92522116,-23.99739002,13.23898963
-3.15530742,-24.38975576,13.23843798
0.53939579,-24.34555149,13.23877206
4.15970504,-23.85665341,13.23908902
7.65903643,-22.93589262,13.23830163
11.01903146,-21.60343612,13.23852806
14.22505403,-19.87458061,13.23918293
17.23670276,-17.72415448,13.23855761
19.94056203,-15.12709656,13.23774076
22.30213083,-12.12403278,13.23823993
24.23111240,-8.73340007,13.23906051
25.59915630,-4.99701799,13.23887289
25.91819267,-0.87498806,9.46955483
26.01367382,3.20325633,9.47013843
25.48098131,7.30952569,9.46966611
24.33445154,11.36259917,9.47012017
22.54093399,15.27764356,9.47060863
20.10918444,18.92574343,9.47023352
17.05623964,22.18186748,9.46988523
13.42482252,24.88324960,9.47012414
9.33755217,26.90299170,9.47058971
4.91083714,28.18053208,9.47004179
0.31396657,28.66222881,9.47028887
-4.30080074,28.30399974,9.47113241
-8.78158922,27.14277183,9.47068979
-13.00927690,25.29493002,9.46912279
-16.88779356,22.82175167,9.46958946
-20.32827962,19.78640661,9.47045264
-23.24918010,16.26117939,9.47083446
-25.54954971,12.31422209,9.47068478
-27.16997256,8.06369966,9.46993036
-28.08681678,3.62737350,9.47015679
-28.23230259,-0.86373959,9.47076986
-27.55642216,-5.27761917,9.47127972
-26.12985091,-9.46415668,9.47093991
-24.02719909,-13.27430363,9.47021689
-21.32380687,-16.58769833,9.47055801
-18.13099787,-19.32508494,9.47093479
-14.62687890,-21.43723950,9.47069944
-10.94659479,-22.95401786,9.47052736
-7.16799569,-23.90328174,9.47137332
-3.40113682,-24.33397362,9.47175451
0.31913750,-24.30242746,9.47102646
3.94890151,-23.81831590,9.47003270
7.48740048,-22.90466237,9.47018248
10.86893054,-21.56836407,9.47074399
14.06247234,-19.80541281,9.47010219
17.06323792,-17.61150581,9.47038883
19.75253862,-14.97761957,9.47075119
22.05696927,-11.95053536,9.46946789
23.92153750,-8.52940290,9.46917338
25.21760479,-4.81042448,9.46944797
25.34334567,-0.87176214,5.70128332
25.40856456,3.10605346,5.70181822
24.85991067,7.11795424,5.70237850
23.71169324,11.06163699,5.70168697
21.95303532,14.86846001,5.70205692
19.61170676,18.43546571,5.70291042
16.64755679,21.64277434,5.70210797
13.10372089,24.29135800,5.70172930
9.10886083,26.27823938,5.70162916
4.77940970,27.53766993,5.70237132
0.29122137,28.00676639,5.70259437
-4.23515504,27.67291334,5.70212467
-8.62915760,26.55417992,5.70223707
-12.76752278,24.74544424,5.70182250
-16.56166142,22.33779526,5.70151418
-19.94343424,19.35652564,5.70176363
-22.80013650,15.89885422,5.70140419
-25.05540223,12.04917571,5.70127800
-26.66143402,7.89216706,5.70201507
-27.56787818,3.53308769,5.70221033
-27.73601383,-0.88132743,5.70261922
-27.12215308,-5.20598136,5.70279037
-25.77441021,-9.34016761,5.70242294
-23.74042729,-13.11506873,5.70232608
-21.08806578,-16.40308671,5.70188503
-17.95912821,-19.11280710,5.70140261
-14.50008146,-21.22162708,5.70201186
-10.85592980,-22.74840220,5.70227943
-7.13079423,-23.70468209,5.70164991
-3.39926894,-24.14200731,5.70133713
0.29407906,-24.09338647,5.70139097
3.89087606,-23.60234563,5.70158596
7.38425963,-22.70693470,5.70239246
10.73825137,-21.38780013,5.70251836
13.90582049,-19.59808617,5.70187591
16.83085423,-17.41204589,5.70140944
19.46027518,-14.80286696,5.70165030
21.70170002,-11.77865343,5.70175000
23.47155097,-8.40777848,5.70205902
24.70264864,-4.73443533,5.70204901
24.77034741,-1.03207123,1.93311767
24.79617861,2.80649293,1.93237270
24.25047133,6.66033688,1.93269589
23.12314170,10.47242194,1.93411931
21.43470553,14.15271343,1.93449700
19.18516924,17.61729156,1.93399608
16.33476560,20.73310346,1.93399840
12.94062303,23.33012539,1.93333606
9.09626193,25.31191737,1.93295456
4.90060920,26.58103392,1.93291281
0.53862904,27.06966652,1.93254946
-3.87134143,26.79005801,1.93348257
-8.15866321,25.75966506,1.93380998
-12.23480654,24.02502566,1.93351577
-15.98087544,21.70123414,1.93366237
-19.30207466,18.81382393,1.93408120
-22.11770203,15.42662664,1.93448554
-24.34396529,11.64646727,1.93375880
-25.92348104,7.55638856,1.93336864
-26.78580290,3.29582792,1.93360763
-26.93467926,-1.04139331,1.93319880
-26.33126740,-5.28753262,1.93304959
-25.01662299,-9.32996468,1.93318404
-23.01580757,-13.02394077,1.93355848
-20.39164424,-16.23822448,1.93385222
-17.31267296,-18.88268970,1.93389382
-13.92758351,-20.93475066,1.93328284
-10.35464964,-22.42648409,1.93282919
-6.72564687,-23.36065424,1.93389391
-3.07027081,-23.79278828,1.93445394
0.53856769,-23.73124447,1.93367119
4.05902313,-23.26346424,1.93354333
7.47905504,-22.40264430,1.93342229
10.74609713,-21.07408504,1.93402173
13.81152731,-19.30239703,1.93424746
16.64263626,-17.14438319,1.93405721
19.17884060,-14.58181603,1.93403044
21.32275628,-11.61092594,1.93370942
23.02065930,-8.34165297,1.93367972
24.18873221,-4.78679243,1.93387628
24.16276573,-1.03798807,-1.83462970
24.14013857,2.70012470,-1.83367417
23.58845162,6.45330049,-1.83450038
22.48257741,10.15002780,-1.83493733
20.83185226,13.71607477,-1.83473930
18.62224629,17.05729700,-1.83478266
15.84681536,20.03560323,-1.83417461
12.54152983,22.53585708,-1.83449157
8.81701509,24.43958000,-1.83491132
4.76234767,25.63535308,-1.83483216
0.53451137,26.07605533,-1.83544216
-3.70941827,25.78334781,-1.83524794
-7.84008403,24.77441857,-1.83472254
-11.75025216,23.09662992,-1.83475526
-15.35504454,20.84665437,-1.83493284
-18.55283399,18.05765669,-1.83455057
-21.26019177,14.80534087,-1.83472274
-23.42802288,11.17240497,-1.83392889
-24.97526603,7.25692040,-1.83382216
-25.83645077,3.15325589,-1.83466307
-26.00994722,-1.03055730,-1.83454804
-25.48417359,-5.14761039,-1.83475568
-24.27317008,-9.09071942,-1.83588523
-22.38215160,-12.70629903,-1.83536519
-19.88125744,-15.86260547,-1.83365318
-16.92113848,-18.49680952,-1.83481892
-13.64385194,-20.54247739,-1.83614192
-10.16576092,-22.03462408,-1.83537847
-6.59499973,-22.98601523,-1.83498531
-3.01011681,-23.42847362,-1.83465582
0.53369658,-23.39048604,-1.83531127
4.00621620,-22.94284203,-1.83497506
7.38054120,-22.10470443,-1.83455261
10.59698212,-20.78588164,-1.83528527
13.61983128,-19.02397470,-1.83488142
16.38703133,-16.88308209,-1.83494016
18.85183557,-14.33896547,-1.83483744
20.90465618,-11.41396748,-1.83455550
22.52907524,-8.17778864,-1.83422954
23.63952299,-4.68730007,-1.83491660
23.33833527,-1.02732776,-5.60294687
23.26563087,2.56424680,-5.60258018
22.70942294,6.17550914,-5.60255479
21.64215154,9.71749939,-5.60283788
20.01073747,13.12996872,-5.60336509
17.86325167,16.30922561,-5.60278148
15.19459289,19.13139354,-5.60323778
12.02556936,21.51666618,-5.60409540
8.45506343,23.34148867,-5.60337109
4.58242806,24.47392186,-5.60263424
0.53671659,24.88938960,-5.60341377
-3.52105119,24.59675312,-5.60354486
-7.46834814,23.62647774,-5.60278609
-11.21279063,22.02806736,-5.60328270
-14.65673230,19.87867316,-5.60336413
-17.71395040,17.21381594,-5.60318194
-20.29829372,14.11531896,-5.60353437
-22.38609300,10.65318773,-5.60382126
-23.89384289,6.91278336,-5.60318440
-24.75495653,2.98000641,-5.60238220
-24.93685190,-1.02961341,-5.60290107
-24.46977394,-4.99431268,-5.60368754
-23.34835837,-8.79535894,-5.60298683
-21.56710609,-12.28785299,-5.60308034
-19.20702122,-15.36828862,-5.60332079
-16.39078074,-17.95510044,-5.60229867
-13.22834743,-19.98136371,-5.60296139
-9.86507062,-21.44373188,-5.60289697
-6.39891346,-22.38690664,-5.60268010
-2.92828588,-22.84189169,-5.60297661
0.54293489,-22.83328894,-5.60201026
3.91815033,-22.41114520,-5.60194786
7.21644204,-21.58274406,-5.60241346
10.36802101,-20.32160008,-5.60233521
13.31116320,-18.61319406,-5.60297186
16.01294307,-16.50104091,-5.60330039
18.39179384,-14.00228553,-5.60274873
20.34953662,-11.12982690,-5.60296146
21.85279040,-7.95683140,-5.60356538
22.87095653,-4.57679609,-5.60380748
22.28006577,-1.03197072,-9.37162958
22.17438313,2.39649888,-9.37226534
21.62175222,5.81736888,-9.37144717
20.58448966,9.18668583,-9.37084726
19.01789287,12.40196350,-9.37140677
16.96477780,15.40612720,-9.37184731
14.42364478,18.07828804,-9.37163097
11.42247087,20.33227040,-9.37094750
8.04036943,22.05391657,-9.37088926
4.36231314,23.12975011,-9.37117917
0.53719263,23.52727332,-9.37094808
-3.31291124,23.25108561,-9.37176801
-7.05730080,22.34255499,-9.37203900
-10.60799543,20.84487537,-9.37144387
-13.88341928,18.81144199,-9.37151207
-16.79203873,16.28807297,-9.37158377
-19.25132620,13.34900353,-9.37044729
-21.24239591,10.07363753,-9.37017172
-22.69282894,6.51652903,-9.37126162
-23.52583223,2.78105393,-9.37143414
-23.71301008,-1.02505457,-9.37069991
-23.29404163,-4.79984506,-9.37168009
-22.24439163,-8.43271240,-9.37180102
-20.56099452,-11.78389987,-9.37082524
-18.35180168,-14.75056220,-9.37025181
-15.67885566,-17.24717148,-9.37101492
-12.67611883,-19.20809178,-9.37165751
-9.45029452,-20.63923066,-9.37107620
-6.12364711,-21.56406170,-9.37159441
-2.79062221,-22.02274836,-9.37267587
0.53101057,-22.03330058,-9.37231083
3.80531393,-21.63680050,-9.37100778
6.97113143,-20.83803744,-9.37038282
10.01853041,-19.63074893,-9.37100638
12.87103133,-17.98710891,-9.37201426
15.45545568,-15.95383224,-9.37154524
17.72939999,-13.52543970,-9.37163992
19.58205807,-10.72959349,-9.37125321
20.95481193,-7.67390332,-9.37119748
21.87656400,-4.41132800,-9.37138236
21.08547412,-1.03964931,-13.13952784
20.95472220,2.20112818,-13.13931990
20.40729052,5.42596773,-13.13960293
19.39272060,8.58071551,-13.14083743
17.91527114,11.58986299,-13.14072142
15.97770593,14.40301101,-13.13991317
13.56530671,16.91474228,-13.13970174
10.74595489,19.01244744,-13.13912880
7.56613638,20.61885531,-13.13946013
4.11489598,21.61872240,-13.13980944
0.53999460,21.98685133,-13.13947308
-3.07175411,21.73314617,-13.13980924
-6.58861753,20.89960981,-13.13971813
-9.93204441,19.50813816,-13.13927810
-13.01629372,17.61151179,-13.13990514
-15.75038077,15.25996041,-13.14013718
-18.07439594,12.49476201,-13.13930102
-19.95855778,9.41124108,-13.13906561
-21.33001416,6.06850587,-13.13930787
-22.11708976,2.55723626,-13.13990639
-22.30375014,-1.03430419,-13.13982667
-21.93351924,-4.58220958,-13.13930348
-20.94670070,-8.00673850,-13.13951990
-19.38335792,-11.17696580,-13.13957232
-17.32421582,-14.01281346,-13.13946520
-14.80468141,-16.37641211,-13.13978169
-11.97764311,-18.25533160,-13.13888722
-8.95093511,-19.64103581,-13.13832807
-5.80081193,-20.53863018,-13.13960174
-2.62341466,-20.99937082,-13.13962032
0.52866402,-21.02478133,-13.13858994
3.64454100,-20.66405676,-13.13924124
6.67326208,-19.91084937,-13.13968631
9.56966207,-18.76101813,-13.13993904
12.29288974,-17.21811114,-13.13982383
14.77298378,-15.26124344,-13.14017703
16.92307349,-12.93433451,-13.14054110
18.64902817,-10.27227968,-13.14055383
19.91993253,-7.33567056,-13.14026507
20.74113977,-4.23380932,-13.13978770
19.80138347,-1.03531991,-16.90876733
19.64951118,2.00066846,-16.90882088
19.11452929,5.00881276,-16.90861309
18.12938594,7.94153657,-16.90877148
16.74111656,10.74062941,-16.90857074
14.92578007,13.35294619,-16.90721343
12.66564960,15.66443284,-16.90792498
10.02766903,17.60176093,-16.90838349
7.07078152,19.06987050,-16.90786596
3.86394388,19.98096886,-16.90822056
0.53094488,20.30976028,-16.90872214
-2.80614544,20.07098120,-16.90814577
-6.06640108,19.30241442,-16.90764493
-9.16348962,18.00863712,-16.90823019
-12.02535004,16.25435867,-16.90913563
-14.56550976,14.07887529,-16.90866718
-16.72703526,11.51029332,-16.90860926
-18.47755818,8.65233869,-16.90855674
-19.75520087,5.55832482,-16.90791962
-20.48763216,2.29394851,-16.90809858
-20.67839888,-1.03187372,-16.90839466
-20.35794166,-4.33969168,-16.90812133
-19.46616870,-7.51909482,-16.90823900
-18.04393980,-10.49709298,-16.90824114
-16.12154340,-13.13995160,-16.90792837
-13.81273502,-15.38986728,-16.90764271
-11.19957692,-17.17745427,-16.90823071
-8.36422670,-18.50935784,-16.90816250
-5.42783046,-19.38422843,-16.90806711
-2.44293264,-19.84540431,-16.90795114
0.53038947,-19.88907900,-16.90748176
3.47022324,-19.56058993,-16.90764036
6.33111850,-18.85834451,-16.90758174
9.07128192,-17.77987468,-16.90756640
11.64649519,-16.33108023,-16.90817668
13.98370494,-14.48344900,-16.90905194
16.00346654,-12.27767704,-16.90863578
17.61608817,-9.74443273,-16.90837231
18.78423906,-6.95633253,-16.90846887
19.51871430,-4.02873519,-16.90841604
18.38571541,-1.02963168,-20.67724900
18.22576733,1.77124146,-20.67682141
17.69119021,4.54191302,-20.67679029
16.75120422,7.23183619,-20.67634343
15.44332267,9.79589604,-20.67636947
13.75560101,12.18728926,-20.67690550
11.65653016,14.27574429,-20.67678461
9.22190611,16.02785222,-20.67567977
6.50206353,17.35179952,-20.67572489
3.57485208,18.15679609,-20.67667197
0.53906668,18.43706141,-20.67695163
-2.51527176,18.20756723,-20.67616389
-5.48038293,17.50605777,-20.67604296
-8.30453614,16.32107309,-20.67598852
-10.90749228,14.72553642,-20.67606060
-13.22384249,12.73188459,-20.67669787
-15.18931732,10.38786544,-20.67692081
-16.78131653,7.78768989,-20.67688856
-17.95468857,4.96692998,-20.67616054
-18.62191270,2.00160493,-20.67563942
-18.81765654,-1.03774746,-20.67643120
-18.54975306,-4.04861037,-20.67753047
-17.77147126,-6.99000470,-20.67676158
-16.52653494,-9.71349926,-20.67574776
-14.81573752,-12.18446588,-20.67612056
-12.71640674,-14.27118024,-20.67594314
-10.29935340,-15.95212356,-20.67538052
-7.69943733,-17.19690993,-20.67607829
-4.99247284,-18.04582499,-20.67708387
-2.23679518,-18.51365946,-20.67692617
0.53377174,-18.57635538,-20.67628917
3.26627691,-18.28405211,-20.67599696
5.93344894,-17.63684732,-20.67631453
8.49474274,-16.64235350,-20.67703874
10.90090709,-15.29897481,-20.67651450
13.08298212,-13.57280307,-20.67613193
14.95926174,-11.50416627,-20.67627281
16.45070774,-9.14001670,-20.67615914
17.50118202,-6.54323108,-20.67645087
18.15039910,-3.81705434,-20.67671726
16.73921308,-1.03678011,-24.44544257
16.55650154,1.50617314,-24.44516128
16.03351081,4.00997444,-24.44441770
15.16086484,6.42271471,-24.44407761
13.96136232,8.71621131,-24.44424378
12.40509398,10.83137003,-24.44467558
10.49805633,12.68046699,-24.44469921
8.30786311,14.22171059,-24.44505906
5.86977463,15.38439946,-24.44495457
3.24582836,16.08622898,-24.44585432
0.53494923,16.31428250,-24.44580228
-2.17559561,16.09628876,-24.44510848
-4.82471506,15.46459876,-24.44472856
-7.33334243,14.41034316,-24.44424483
-9.65093887,12.98367326,-24.44510296
-11.70993181,11.21275734,-24.44578488
-13.45391496,9.13313333,-24.44506657
-14.86820032,6.82260583,-24.44502722
-15.91890699,4.31322880,-24.44485574
-16.52144204,1.66709501,-24.44456398
-16.71015128,-1.03465292,-24.44416922
-16.49546277,-3.72351049,-24.44416919
-15.83977322,-6.35730023,-24.44564026
-14.77081504,-8.82873419,-24.44611933
-13.26819920,-11.05662708,-24.44531954
-11.40742410,-12.97559782,-24.44474253
-9.26319973,-14.51508352,-24.44428683
-6.92808731,-15.66068818,-24.44478100
-4.48016900,-16.47618103,-24.44529268
-1.98048678,-16.92195936,-24.44520266
0.53956590,-17.00261698,-24.44482702
3.02080226,-16.75750723,-24.44431806
5.46112794,-16.18550709,-24.44517717
7.79306573,-15.27888502,-24.44521126
10.00312681,-14.06046449,-24.44515223
11.99279809,-12.48491647,-24.44482931
13.69879721,-10.58845108,-24.44434574
15.05565596,-8.43161558,-24.44529848
15.99221133,-6.05259686,-24.44530538
16.54706121,-3.57206061,-24.44499546
14.74405157,-1.02835273,-28.21331951
14.54979448,1.18705453,-28.21298908
14.05668159,3.36342129,-28.21279854
13.27514013,5.45776741,-28.21319131
12.19699184,7.43883752,-28.21291220
10.81871293,9.24603134,-28.21300039
9.14837319,10.82070160,-28.21295621
7.24499117,12.13271774,-28.21295197
5.12996843,13.11827080,-28.21379122
2.86974988,13.70388236,-28.21423538
0.53388531,13.88299096,-28.21362251
-1.79311739,13.67478409,-28.21252768
-4.05757368,13.12018891,-28.21242086
-6.21454968,12.20861103,-28.21303300
-8.19997310,10.99272078,-28.21373292
-9.96957312,9.47990399,-28.21356999
-11.47434468,7.69171768,-28.21308543
-12.68997040,5.70786112,-28.21286088
-13.59767822,3.56109799,-28.21291758
-14.12978731,1.29122531,-28.21239159
-14.30338910,-1.02680316,-28.21270287
-14.14152424,-3.35847144,-28.21395140
-13.61074980,-5.62718890,-28.21327131
-12.72747363,-7.78678309,-28.21229621
-11.46223906,-9.74937242,-28.21235987
-9.87689411,-11.45090087,-28.21277790
-8.03326954,-12.82401287,-28.21305197
-5.99061316,-13.84786730,-28.21219493
-3.85879020,-14.57023646,-28.21211710
-1.67221069,-14.98252748,-28.21321816
0.53936793,-15.07821412,-28.21326512
2.73145779,-14.87407529,-28.21334866
4.86925499,-14.37612487,-28.21375823
6.93333801,-13.58860604,-28.21359087
8.88371038,-12.52438726,-28.21309697
10.63280739,-11.13216187,-28.21289920
12.12999064,-9.45356248,-28.21288673
13.32950544,-7.55555523,-28.21276377
14.13368616,-5.45128927,-28.21300643
14.60048624,-3.26318212,-28.21291292
12.24102837,-1.03139159,-31.98126554
12.05126908,0.79026493,-31.98129744
11.61916436,2.57257827,-31.98199158
10.95734508,4.28046539,-31.98153431
10.05180333,5.88065662,-31.98106936
8.90164464,7.33389836,-31.98187503
7.52942782,8.59105169,-31.98163653
5.97652376,9.63671359,-31.98191070
4.25918776,10.41466381,-31.98281793
2.41877816,10.87687143,-31.98208296
0.53666641,11.00533770,-31.98133182
-1.33661856,10.80881744,-31.98171882
-3.16021659,10.33624783,-31.98139422
-4.88634762,9.60577372,-31.98055802
-6.48333104,8.63291841,-31.98074729
-7.91461331,7.41504839,-31.98142646
-9.12594130,5.98470817,-31.98198561
-10.10638460,4.39540198,-31.98159971
-10.84665174,2.66716196,-31.98112388
-11.29747220,0.83993051,-31.98139948
-11.44703103,-1.03566239,-31.98107659
-11.34569702,-2.91275788,-31.98072647
-10.94266303,-4.75880378,-31.98129492
-10.25821502,-6.53012997,-31.98106891
-9.27254817,-8.15410789,-31.98073977
-8.00373229,-9.56825597,-31.98141662
-6.50458881,-10.71919442,-31.98198124
-4.83916694,-11.57417140,-31.98159112
-3.08481059,-12.17459070,-31.98126282
-1.28619076,-12.53877384,-31.98145923
0.53564223,-12.63840561,-31.98167119
2.34914440,-12.47684178,-31.98175459
4.12194938,-12.06971456,-31.98135946
5.83293372,-11.43087642,-31.98098763
7.45641023,-10.55301006,-31.98157586
8.89921307,-9.39807941,-31.98199849
10.12965810,-8.00460114,-31.98175126
11.13293224,-6.42817288,-31.98051053
11.78251387,-4.68001977,-31.98113370
12.14937828,-2.87267287,-31.98202888
8.85305768,-1.03062777,-35.74944224
8.69466172,0.25933969,-35.74990053
8.37266133,1.51836806,-35.75034558
7.88470078,2.71059407,-35.75024128
7.22510620,3.83140710,-35.74992957
6.39494311,4.83008341,-35.74945239
5.42242680,5.69333382,-35.74948473
4.32690756,6.40767157,-35.74960217
3.12256044,6.93013708,-35.74962327
1.84307990,7.23679338,-35.74968116
0.53653681,7.30718653,-35.74981077
-0.75453431,7.13564029,-35.74966181
-2.00645978,6.78994269,-35.74959906
-3.18596214,6.27723908,-35.74988740
-4.28961429,5.60845690,-35.74996523
-5.27104744,4.78044104,-35.74958103
-6.11223049,3.80018130,-35.74942860
-6.79184726,2.70305354,-35.74951909
-7.31161397,1.51813780,-35.74963141
-7.64981854,0.26221362,-35.74971024
-7.76832548,-1.02985192,-35.74958202
-7.72030693,-2.34036054,-35.75010544
-7.47186117,-3.63113279,-35.75019541
-7.02546909,-4.88210810,-35.74937930
-6.36805592,-6.04709953,-35.74954030
-5.49112227,-7.05946264,-35.74975813
-4.44266244,-7.88468023,-35.74993017
-3.27050318,-8.50730502,-35.75047807
-2.03262131,-8.93912722,-35.74999478
-0.76009434,-9.21877789,-35.74975270
0.53506973,-9.30986864,-35.75012966
1.82991564,-9.20390611,-35.75008486
3.10078829,-8.92459780,-35.74962133
4.33137021,-8.47946406,-35.74976981
5.49277373,-7.85885159,-35.74973624
6.53357940,-7.02752401,-35.75007744
7.40361410,-6.02238919,-35.75027188
8.11968967,-4.89515911,-35.74958477
8.57567959,-3.64772946,-35.74950787
8.82146396,-2.34313407,-35.74975934
0.80559279,-1.30408687,-39.51815213
19.00620777,-2.06760714,35.84851446
19.26786520,0.85177877,35.84851452
19.06098971,3.85098727,35.84851469
18.37572473,6.85609189,35.84851482
17.19779070,9.80635986,35.84851493
15.53116807,12.60773323,35.84851513
13.38556294,15.16468913,35.84851518
10.76918624,17.39055012,35.84851517
7.75831166,19.16385560,35.84851523
4.42495491,20.40065162,35.84851512
0.86354940,21.03846769,35.84851500
-2.79653999,21.03609090,35.84851486
-6.43299913,20.38534427,35.84851473
-9.92567533,19.09354022,35.84851467
-13.13680190,17.19085088,35.84851463
-15.92971440,14.72359122,35.84851460
-18.16993304,11.76363262,35.84851458
-19.74322848,8.42871103,35.84851458
-20.58412034,4.89559880,35.84851460
-20.69642750,1.34292621,35.84851462
-20.14558598,-2.06665211,35.84851466
-19.03221088,-5.21597077,35.84851470
-17.48111933,-8.02974172,35.84851472
-15.61347021,-10.45257917,35.84851473
-13.48668036,-12.48777494,35.84851462
-11.19019229,-14.10784192,35.84851459
-8.77921114,-15.33549887,35.84851451
-6.33464891,-16.19224931,35.84851450
-3.89842961,-16.71642373,35.84851450
-1.49595070,-16.94978412,35.84851451
0.86019817,-16.91859013,35.84851451
3.17172413,-16.64349232,35.84851449
5.42508250,-16.13824318,35.84851454
7.64282579,-15.38854120,35.84851448
9.80870086,-14.38252237,35.84851451
11.89634292,-13.10008672,35.84851446
13.86893998,-11.51874606,35.84851443
15.66177571,-9.60526711,35.84851438
17.16578110,-7.36535070,35.84851440
18.29486469,-4.83196404,35.84851441
19.08781200,-2.06699898,32.51235670
19.42656676,0.87411740,32.51202658
19.29830059,3.92719307,32.51286294
18.69710027,7.02617594,32.51356432
17.56288127,10.07042960,32.51337223
15.89654878,12.97128750,32.51265291
13.71457004,15.61633023,32.51194492
11.04197763,17.89983751,32.51185839
7.93322157,19.71099701,32.51250152
4.50149540,20.95141221,32.51267311
0.86072719,21.56466564,32.51207416
-2.87964363,21.54785702,32.51217343
-6.58952716,20.87287428,32.51277453
-10.13761357,19.52451951,32.51239276
-13.40531354,17.56176604,32.51216652
-16.25357566,15.04886340,32.51196740
-18.55920589,12.04122489,32.51233930
-20.18195981,8.65737547,32.51235696
-21.08443529,5.06542539,32.51244971
-21.23693439,1.43624414,32.51293916
-20.73172643,-2.06243894,32.51265432
-19.60888748,-5.30843252,32.51251513
-17.99588879,-8.19098512,32.51290914
-16.01759588,-10.66900380,32.51348358
-13.75956334,-12.69435633,32.51274048
-11.34463421,-14.27289066,32.51150658
-8.85346956,-15.43034614,32.51189527
-6.34424994,-16.20324564,32.51226379
-3.87947053,-16.67175289,32.51204591
-1.47840388,-16.85148750,32.51237004
0.85897116,-16.78481162,32.51264210
3.15453816,-16.50857781,32.51227644
5.38695800,-15.99263593,32.51187104
7.55888921,-15.22177376,32.51245580
9.70341368,-14.23576307,32.51250943
11.76242538,-12.97086719,32.51272017
13.72038196,-11.42126976,32.51273049
15.52002984,-9.53934296,32.51249923
17.06908848,-7.33759136,32.51237358
18.26430063,-4.81870629,32.51207797
19.09030776,-2.06840480,29.17627830
19.49739950,0.88554862,29.17669712
19.43507614,3.96741367,29.17603208
18.90748923,7.12159003,29.17641872
17.81335624,10.24859040,29.17668550
16.15144318,13.22950372,29.17615897
13.94759699,15.93870296,29.17607377
11.23004629,18.27633241,29.17594599
8.06375339,20.12517020,29.17616781
4.57531512,21.36861069,29.17655343
0.85924887,21.97547614,29.17624117
-2.94721442,21.95105978,29.17618516
-6.71160381,21.23781433,29.17623177
-10.32726038,19.89133293,29.17631799
-13.61836160,17.86336134,29.17584568
-16.51178851,15.30235082,29.17509550
-18.86837252,12.26815867,29.17562766
-20.53563733,8.82855903,29.17621969
-21.48313770,5.19930190,29.17716662
-21.67648276,1.51114686,29.17698304
-21.19373901,-2.06700424,29.17673582
-20.05878964,-5.38395353,29.17676882
-18.39169004,-8.32692168,29.17575034
-16.33115601,-10.82651773,29.17648387
-13.96160629,-12.84185112,29.17691123
-11.45179459,-14.37721953,29.17668583
-8.88103931,-15.48227204,29.17622472
-6.33567281,-16.18151012,29.17594871
-3.85942274,-16.58848583,29.17617254
-1.45777062,-16.73267998,29.17674324
0.85805400,-16.64102808,29.17705506
3.11580554,-16.34689149,29.17599111
5.34016689,-15.83413573,29.17546829
7.48616358,-15.06999159,29.17654300
9.57259740,-14.05142383,29.17715808
11.61669589,-12.82638547,29.17645303
13.58131028,-11.30791142,29.17626526
15.37022844,-9.46633182,29.17615667
16.92670499,-7.27894583,29.17625200
18.19850412,-4.80976203,29.17610867
19.00494450,-2.06410570,25.83998052
19.45995414,0.87784777,25.84054834
19.46376321,3.97756351,25.84042706
18.99653504,7.17490283,25.83981123
17.94343926,10.34699199,25.83978182
16.30267713,13.37841542,25.83965366
14.08507649,16.14876049,25.84000266
11.35078683,18.52103890,25.83950527
8.15670800,20.39375821,25.83962524
4.61956052,21.65438742,25.83999160
0.85655966,22.26061100,25.84014314
-2.98883838,22.23990270,25.84028722
-6.80080764,21.52397998,25.83962084
-10.43680623,20.10885659,25.84054473
-13.77410548,18.06850407,25.84111918
-16.71089159,15.50217226,25.83984713
-19.11756981,12.44402989,25.83992043
-20.81863328,8.97988598,25.84068417
-21.81243269,5.30103098,25.84048001
-22.04293499,1.55802046,25.84008436
-21.56569357,-2.06493267,25.83970066
-20.40788551,-5.43332874,25.84002330
-18.68889231,-8.41746934,25.84022648
-16.55524478,-10.93671250,25.83970288
-14.09103162,-12.93877976,25.83963293
-11.49964697,-14.42875086,25.84095214
-8.88445421,-15.46976057,25.84050676
-6.29150750,-16.10656669,25.83994311
-3.81967863,-16.46832419,25.84009684
-1.43565711,-16.57802564,25.84022529
0.86169813,-16.46651090,25.84047874
3.08841884,-16.16237219,25.84020888
5.26775188,-15.63566290,25.84025510
7.38627744,-14.87649820,25.84065786
9.45786552,-13.89707588,25.84051777
11.47691398,-12.67692604,25.84005866
13.42198068,-11.19266521,25.84010289
15.19625328,-9.37189040,25.84016858
16.76910172,-7.24004047,25.84030673
18.06861943,-4.79227102,25.84020480
18.85649870,-2.06093463,22.50289101
19.33390638,0.85963967,22.50310778
19.37673769,3.96065780,22.50333990
18.95198059,7.15261907,22.50331598
17.93999748,10.33771460,22.50423223
16.41833012,13.49589969,22.50500261
14.19083934,16.28518038,22.50383621
11.41539078,18.64772313,22.50372148
8.20949443,20.56026690,22.50340271
4.64923217,21.85247374,22.50363013
0.86384922,22.46932681,22.50432366
-3.02095941,22.43866716,22.50470180
-6.86089357,21.71957411,22.50410072
-10.53571576,20.29181814,22.50369990
-13.88141734,18.22791118,22.50352384
-16.84184938,15.63140046,22.50411162
-19.26906938,12.56271743,22.50468929
-21.01453479,9.07749201,22.50431103
-22.04088541,5.36986594,22.50398547
-22.30528920,1.60610826,22.50426961
-21.80811458,-2.06375724,22.50416292
-20.61460856,-5.47383506,22.50363183
-18.85848827,-8.47493537,22.50377369
-16.66671331,-10.99319166,22.50362746
-14.13678129,-12.96320606,22.50341961
-11.49138666,-14.41580424,22.50424570
-8.83210408,-15.41642301,22.50434724
-6.23891424,-16.01109023,22.50382978
-3.78068130,-16.34030174,22.50371502
-1.42330146,-16.43353651,22.50424069
0.85766963,-16.28645978,22.50467543
3.06607714,-15.98646848,22.50366767
5.20993482,-15.45053254,22.50289383
7.29620128,-14.68893799,22.50336110
9.34035869,-13.73293579,22.50365568
11.34322086,-12.54062861,22.50364377
13.26940789,-11.07113990,22.50403488
15.04748448,-9.28823051,22.50443461
16.60873527,-7.18709054,22.50459161
17.92398968,-4.76839129,22.50369832
18.70462310,-2.07196703,19.16811904
19.20760450,0.83964138,19.16839366
19.29123699,3.92234514,19.16781494
18.88686807,7.11865712,19.16802218
18.06127264,10.42824933,19.16799453
16.42511332,13.49674179,19.16701363
14.20477292,16.29523113,19.16743259
11.41302877,18.64226953,19.16766697
8.22400390,20.59529256,19.16745492
4.65649629,21.88940697,19.16764720
0.85959970,22.51106738,19.16835013
-3.01959900,22.46341852,19.16857532
-6.86932382,21.71255078,19.16858121
-10.52204019,20.26509176,19.16889780
-13.86666054,18.20625886,19.16846288
-16.83002363,15.60943540,19.16758304
-19.25670383,12.54859353,19.16779442
-21.03445703,9.08852477,19.16831898
-22.11217108,5.40057023,19.16756938
-22.38884896,1.61878534,19.16745474
-21.93008421,-2.06036003,19.16820973
-20.74664773,-5.48582762,19.16824462
-18.96739184,-8.51132113,19.16820366
-16.74947991,-11.03796428,19.16799229
-14.17481798,-12.98710338,19.16732432
-11.49985223,-14.42881601,19.16755039
-8.82213821,-15.39894522,19.16804672
-6.21610746,-15.96417361,19.16800711
-3.75093614,-16.26579111,19.16787511
-1.39900467,-16.33858068,19.16804409
0.86073412,-16.19970937,19.16849361
3.04763243,-15.87117627,19.16785636
5.17351017,-15.33282818,19.16738962
7.24632693,-14.59612046,19.16842849
9.27149950,-13.64367511,19.16814643
11.25008281,-12.45869321,19.16800088
13.16235897,-11.00826791,19.16833457
14.93786493,-9.24294337,19.16826477
16.50426170,-7.14484791,19.16867201
17.79257460,-4.74157933,19.16801973
18.62884664,-2.06648541,15.83189807
19.14134192,0.82740242,15.83231687
19.25380913,3.90692080,15.83130061
18.82759542,7.08951652,15.83102326
17.84616518,10.27411640,15.83158188
16.28662559,13.36425036,15.83157612
14.11566456,16.16140973,15.83178073
11.37698096,18.58079480,15.83205224
8.20963007,20.54458346,15.83281941
4.64912400,21.83303252,15.83254477
0.86280740,22.43580964,15.83190939
-3.00265711,22.34175507,15.83194038
-6.79983376,21.53258428,15.83171460
-10.43405322,20.07923281,15.83148380
-13.74723661,18.02366101,15.83203822
-16.66626587,15.45450539,15.83242722
-19.06195808,12.40900571,15.83240893
-20.84464122,8.99517976,15.83112418
-21.95446307,5.34435871,15.83141328
-22.33406521,1.60431920,15.83193448
-21.95807278,-2.07015578,15.83165007
-20.85655551,-5.50056730,15.83238024
-19.01180192,-8.51924576,15.83187324
-16.81843876,-11.06900838,15.83157453
-14.28916166,-13.07297352,15.83158404
-11.58812973,-14.51454743,15.83090740
-8.87534941,-15.47224423,15.83139958
-6.25898299,-16.02887450,15.83168440
-3.75881146,-16.30750949,15.83213536
-1.40209701,-16.34998693,15.83279302
0.86171211,-16.18179578,15.83262306
3.04237397,-15.82236059,15.83224834
5.14850036,-15.27012650,15.83185177
7.21622239,-14.53067351,15.83216076
9.22188851,-13.57767571,15.83206847
11.18510684,-12.39601014,15.83130800
13.09306686,-10.95452444,15.83083961
14.86249271,-9.20361553,15.83148280
16.42257474,-7.12903720,15.83215253
17.71470031,-4.73456578,15.83197774
18.51908481,-1.91369127,12.49603073
18.97772554,0.98256100,12.49588027
19.05914344,4.04815949,12.49590086
18.61442771,7.20202843,12.49577486
17.57303668,10.33928860,12.49578766
15.99370089,13.36176241,12.49525792
13.80215951,16.11558817,12.49583488
11.09775866,18.47379131,12.49627162
7.95092838,20.35531031,12.49555120
4.44786703,21.65647671,12.49585258
0.71403307,22.22443910,12.49632019
-3.08627750,22.08003400,12.49624021
-6.81528451,21.24815620,12.49595081
-10.33921149,19.79293777,12.49546829
-13.58451280,17.76567270,12.49535529
-16.43603960,15.22889037,12.49522002
-18.79039673,12.25507886,12.49542470
-20.57306323,8.92680790,12.49584604
-21.71962816,5.37053087,12.49635754
-22.16927138,1.71564514,12.49631348
-21.89540906,-1.91842628,12.49590526
-20.88689091,-5.33314470,12.49479994
-19.20686436,-8.39258540,12.49486952
-17.02296059,-10.94707696,12.49587734
-14.49379224,-12.96174734,12.49548409
-11.79809290,-14.43335917,12.49560743
-9.09604482,-15.41123497,12.49591272
-6.45861246,-15.99546788,12.49599396
-3.95811372,-16.29360802,12.49636038
-1.57933251,-16.35718163,12.49572703
0.71698530,-16.21530540,12.49506074
2.92414462,-15.86554357,12.49590819
5.06775208,-15.30494947,12.49683892
7.16271970,-14.55919206,12.49601980
9.18428601,-13.58421172,12.49612178
11.16185231,-12.36190310,12.49620767
13.06864344,-10.89174863,12.49584549
14.83158858,-9.11361241,12.49527858
16.38059584,-7.00294963,12.49557889
17.64846478,-4.59198189,12.49602239
18.15815474,-1.90216307,9.15927327
18.59125016,0.94491312,9.15943437
18.66654823,3.94921863,9.15981181
18.22874846,7.06239927,9.16011047
17.22269849,10.14091888,9.15982059
15.68289111,13.12722117,9.15989394
13.54818771,15.84936789,9.15981741
10.90378450,18.20876844,9.15997684
7.81309420,20.10451220,9.15991926
4.33814326,21.35229748,9.16001186
0.65624823,21.93174084,9.16038224
-3.09025664,21.78422450,9.15982087
-6.76574768,20.96128979,9.15936519
-10.23015136,19.48509400,9.15923523
-13.39992298,17.45777637,9.15930298
-16.19813090,14.96500414,9.16018149
-18.53575468,12.05417480,9.15890339
-20.32764366,8.78971400,9.15869759
-21.48261030,5.30592141,9.16012180
-21.96161472,1.69182304,9.16067026
-21.72628057,-1.90128434,9.16008689
-20.75020863,-5.28198686,9.15878056
-19.07382611,-8.31313949,9.15921637
-16.92955946,-10.85746699,9.15895737
-14.43952890,-12.86338983,9.15905794
-11.77227907,-14.32715433,9.15963329
-9.08780812,-15.31098910,9.15999087
-6.47853533,-15.90420327,9.15980892
-3.99412969,-16.20157183,9.15951556
-1.61988142,-16.26810454,9.15946969
0.66363217,-16.11954292,9.15971162
2.85447172,-15.76811686,9.16038290
4.98494549,-15.21973063,9.15972691
7.07468300,-14.49333068,9.15918433
9.10623463,-13.51861594,9.15942088
11.09129418,-12.32970706,9.15953944
12.93660197,-10.80941464,9.15925621
14.62511421,-9.00762600,9.15943418
16.10241490,-6.91538384,9.15991409
17.32441168,-4.53403342,9.15956771
17.77417423,-1.83465293,5.82347331
18.14321153,0.93843591,5.82362758
18.13167027,3.86616273,5.82314278
17.65298606,6.85995638,5.82289123
16.71878964,9.88308851,5.82393986
15.17278583,12.75344027,5.82399436
13.18470867,15.50489658,5.82366271
10.59847106,17.83235637,5.82359837
7.56781131,19.68447642,5.82332166
4.17735197,20.92169880,5.82338646
0.57196240,21.49492246,5.82372227
-3.10480256,21.36054480,5.82372009
-6.70189352,20.55495811,5.82315177
-10.08166237,19.07517001,5.82332082
-13.24181530,17.17450763,5.82318244
-15.97687094,14.71165142,5.82305326
-18.18185036,11.79280316,5.82369523
-19.94866908,8.61532330,5.82368471
-21.10761356,5.19867103,5.82293199
-21.59455931,1.66908274,5.82275508
-21.38249857,-1.84080973,5.82335119
-20.44237847,-5.16810172,5.82399843
-18.73931949,-8.12020966,5.82309179
-16.68048296,-10.63346254,5.82207682
-14.35234963,-12.69035876,5.82291057
-11.74717757,-14.16497074,5.82475031
-9.09231527,-15.14675448,5.82445089
-6.52373817,-15.77600021,5.82348320
-4.05360764,-16.09098996,5.82312294
-1.69295991,-16.17116946,5.82280201
0.56921216,-16.04138773,5.82304086
2.76178064,-15.69623612,5.82280913
4.89688017,-15.13418554,5.82252714
6.96802897,-14.39134026,5.82369859
8.98512512,-13.41232632,5.82382738
10.91176911,-12.18237403,5.82283232
12.74303763,-10.67809750,5.82329642
14.40113872,-8.88619136,5.82374941
15.83103029,-6.80052961,5.82329824
16.98774022,-4.44049016,5.82328088
17.45662466,-1.80781312,2.48650189
17.75393742,0.92271036,2.48697202
17.68744086,3.76278349,2.48807256
17.17442316,6.66575740,2.48838484
16.19424989,9.55841649,2.48805133
14.74882760,12.39783866,2.48814744
12.78260089,15.02503701,2.48686306
10.26697061,17.26599300,2.48706212
7.33819123,19.05986021,2.48778338
4.05169668,20.32670748,2.48801801
0.54894143,20.88653027,2.48798379
-3.01942487,20.71840313,2.48722832
-6.54589759,20.02954673,2.48724076
-9.80393496,18.53190307,2.48734574
-12.81182409,16.58890008,2.48747468
-15.46174561,14.21820780,2.48669116
-17.89357346,11.60165412,2.48697039
-19.40783817,8.36562664,2.48779028
-20.52067413,5.04251049,2.48733964
-20.98076116,1.60364954,2.48701879
-20.78702397,-1.80270669,2.48682369
-19.91609841,-5.04284918,2.48710018
-18.43317627,-7.97614931,2.48734971
-16.41455907,-10.44713871,2.48709498
-14.08803050,-12.43436988,2.48747631
-11.57059349,-13.92760647,2.48797946
-9.02719537,-14.97870692,2.48748923
-6.51163284,-15.66300279,2.48670562
-4.06381114,-16.02380331,2.48687881
-1.71737767,-16.14150891,2.48759461
0.55097488,-16.04090801,2.48732254
2.75715926,-15.70738356,2.48730183
4.87966989,-15.13215330,2.48788772
6.96221007,-14.38111537,2.48740369
8.96853506,-13.39015532,2.48688999
10.87980397,-12.12891676,2.48735534
12.66213586,-10.60091489,2.48787070
14.27223438,-8.79802092,2.48733597
15.64911787,-6.70794967,2.48692152
16.74325833,-4.36602490,2.48707522
17.23842912,-2.06915291,-0.84925277
17.51983931,0.56783511,-0.84900777
17.43237881,3.31974957,-0.84822440
16.90916138,6.10939391,-0.84851242
15.95341588,8.89455881,-0.84837194
14.56550222,11.64565516,-0.84855709
12.69433976,14.22169443,-0.84883167
10.31497733,16.48007203,-0.84869761
7.47273399,18.25936850,-0.84825468
4.27224510,19.47332767,-0.84842689
0.86002333,20.06588202,-0.84895190
-2.62114381,19.92012307,-0.84871300
-6.05629458,19.20510578,-0.84800654
-9.28052959,17.82179512,-0.84827262
-12.21859208,15.93192283,-0.84919090
-14.85091430,13.64456804,-0.84906136
-16.99410398,10.90336696,-0.84796102
-18.64818540,7.87779124,-0.84854396
-19.73082463,4.62827469,-0.84965206
-20.25150966,1.27064456,-0.84843060
-20.09982627,-2.07072180,-0.84836174
-19.20730189,-5.24012440,-0.84899547
-17.80612371,-8.12493870,-0.84860519
-15.88190648,-10.59440713,-0.84836546
-13.59284256,-12.56599159,-0.84879602
-11.14168470,-14.07020443,-0.84862208
-8.63123846,-15.12892353,-0.84885613
-6.14840240,-15.81545406,-0.84859366
-3.70669327,-16.12956212,-0.84854379
-1.38064884,-16.20708116,-0.84884643
0.85797126,-16.08327502,-0.84869852
3.02612821,-15.73006387,-0.84881772
5.11804516,-15.15389394,-0.84835610
7.13060551,-14.37407601,-0.84845247
9.07896786,-13.37656940,-0.84898806
10.92523908,-12.11886476,-0.84929160
12.63315307,-10.61769544,-0.84909743
14.18109537,-8.85232448,-0.84933877
15.48802143,-6.81559000,-0.84907399
16.53306352,-4.54965119,-0.84836793
16.87185233,-2.06538448,-4.18479961
17.09919058,0.50972321,-4.18421064
16.96733890,3.16923782,-4.18403897
16.42744039,5.86211092,-4.18443676
15.48970007,8.55356573,-4.18436321
14.12580684,11.18964466,-4.18470792
12.28055834,13.64477114,-4.18480804
9.96937804,15.79323888,-4.18487852
7.21344507,17.47426704,-4.18515937
4.14299488,18.62988158,-4.18498117
0.86677019,19.19444570,-4.18502234
-2.48356139,19.05456813,-4.18518368
-5.75877807,18.30640231,-4.18483656
-8.85346320,17.00836838,-4.18425379
-11.68444732,15.19640073,-4.18422364
-14.17691016,12.96890926,-4.18469349
-16.25600654,10.37648677,-4.18548361
-17.87963782,7.47630462,-4.18603308
-18.95686491,4.38035523,-4.18466966
-19.45279963,1.15114406,-4.18445776
-19.35175402,-2.06786824,-4.18568337
-18.62133719,-5.15863621,-4.18612699
-17.31821328,-7.97172301,-4.18504180
-15.49808612,-10.40113821,-4.18445743
-13.33565632,-12.38247024,-4.18466990
-10.96874108,-13.89594113,-4.18466222
-8.51823919,-14.97780823,-4.18406744
-6.07589607,-15.68029180,-4.18442768
-3.67193861,-16.03447983,-4.18465010
-1.37090853,-16.14310439,-4.18418677
0.86181579,-16.04225484,-4.18437493
3.01802781,-15.67206974,-4.18511170
5.09557583,-15.09065321,-4.18495479
7.10076130,-14.31408347,-4.18493537
9.03057611,-13.31506601,-4.18406407
10.85287262,-12.04952752,-4.18371551
12.53435179,-10.54371802,-4.18470513
14.04223730,-8.78114233,-4.18521982
15.29291858,-6.75450684,-4.18483918
16.25646654,-4.49964106,-4.18451933
16.30243322,-2.06356248,-7.52080097
16.46255130,0.40279798,-7.52081182
16.23831496,2.93942019,-7.52177960
15.68074803,5.48030576,-7.52192354
14.77432830,8.04165927,-7.52054637
13.45247010,10.52580969,-7.52024501
11.68228119,12.83660616,-7.52071709
9.48504286,14.86840643,-7.52086330
6.87547440,16.45580501,-7.52106562
3.96604367,17.56238572,-7.52107787
0.85888578,18.17106221,-7.52079206
-2.32671368,18.06528020,-7.52122923
-5.44178997,17.33019881,-7.52179823
-8.39762637,16.10319580,-7.52117703
-11.09477584,14.38512979,-7.52062259
-13.46619290,12.26799187,-7.52084566
-15.46782211,9.79043659,-7.52091733
-17.02930422,7.04997557,-7.52056954
-18.08530474,4.08438251,-7.52092326
-18.57733967,1.01016567,-7.52161911
-18.44586291,-2.06518360,-7.52104278
-17.78323241,-5.01678972,-7.52078519
-16.46951673,-7.69360853,-7.52097979
-14.79623718,-10.04483183,-7.52184669
-12.78305173,-11.98676173,-7.52148070
-10.55486597,-13.47727483,-7.52092763
-8.23500501,-14.58612764,-7.52075616
-5.89291599,-15.32268536,-7.52061631
-3.57581903,-15.71801180,-7.52100140
-1.31447859,-15.81852757,-7.52160861
0.86346686,-15.72654919,-7.52083986
2.96955969,-15.37120076,-7.51980923
5.00123327,-14.81703576,-7.51985441
6.96320079,-14.04950328,-7.52074897
8.86154829,-13.07738302,-7.52120223
10.63582302,-11.84460754,-7.52127214
12.26782877,-10.36168980,-7.52113480
13.70847221,-8.61272632,-7.52067541
14.86496377,-6.61318799,-7.52089380
15.74259237,-4.41959217,-7.52101851
15.54903930,-2.06224102,-10.85629609
15.66558766,0.27873951,-10.85695594
15.41832490,2.66429677,-10.85733564
14.81248013,5.03506542,-10.85683522
13.92598100,7.42745809,-10.85683662
12.65644629,9.73118788,-10.85761724
10.97440081,11.86224811,-10.85711679
8.92131417,13.74214732,-10.85661211
6.47457413,15.22285956,-10.85733034
3.76901713,16.28615892,-10.85748139
0.86043357,16.84634423,-10.85666266
-2.12714913,16.78861672,-10.85622104
-5.07102369,16.19040547,-10.85643111
-7.87572769,15.09048801,-10.85688963
-10.45241001,13.50384052,-10.85743797
-12.65936774,11.45162514,-10.85692146
-14.56216899,9.14085263,-10.85705299
-16.04471853,6.54379327,-10.85774011
-17.01288423,3.74322161,-10.85725862
-17.45204914,0.83344252,-10.85660937
-17.35874881,-2.06182328,-10.85697807
-16.76218826,-4.85877350,-10.85739641
-15.65753488,-7.44061444,-10.85668936
-14.11396830,-9.69189958,-10.85705167
-12.22786021,-11.57863692,-10.85765219
-10.11559118,-13.04882703,-10.85763854
-7.91571747,-14.14473953,-10.85682610
-5.65173858,-14.84955197,-10.85647002
-3.40805909,-15.18733336,-10.85657756
-1.23366887,-15.29852116,-10.85629449
0.86339797,-15.19809193,-10.85679924
2.88865870,-14.90243562,-10.85734282
4.86113789,-14.38167231,-10.85715629
6.76496011,-13.65336721,-10.85765504
8.60004570,-12.71338646,-10.85712453
10.31530978,-11.51180193,-10.85664691
11.87184093,-10.05940011,-10.85758891
13.21978894,-8.36084197,-10.85748390
14.28514226,-6.43055342,-10.85750290
15.06281901,-4.31726502,-10.85659586
14.71643468,-1.96027492,-14.19347542
14.77538343,0.27045027,-14.19371899
14.45958418,2.51788776,-14.19316786
13.81187012,4.72671610,-14.19397222
12.93452649,6.93425177,-14.19417143
11.71685806,9.05883594,-14.19314652
10.11715322,11.00880651,-14.19355937
8.14696762,12.67447712,-14.19368229
5.88024473,13.97772011,-14.19328450
3.37884463,14.95023337,-14.19350649
0.69547028,15.44353619,-14.19341611
-2.05976603,15.41201482,-14.19288590
-4.77670902,14.88293689,-14.19339481
-7.38279570,13.88894410,-14.19293896
-9.73303317,12.39411453,-14.19208020
-11.72902606,10.47344746,-14.19239720
-13.47750487,8.34547501,-14.19337341
-14.84306782,5.95744403,-14.19390950
-15.72697683,3.37635093,-14.19344964
-16.13840558,0.70806218,-14.19369987
-16.08563546,-1.96277199,-14.19307209
-15.61973644,-4.54202837,-14.19294944
-14.66545419,-6.94847916,-14.19308999
-13.31687677,-9.10160161,-14.19292086
-11.63156771,-10.91298419,-14.19272107
-9.69159006,-12.34782301,-14.19308671
-7.64295382,-13.43739614,-14.19384116
-5.53855822,-14.18864432,-14.19304982
-3.41203272,-14.59156613,-14.19269089
-1.32482847,-14.72576592,-14.19262401
0.69641460,-14.63966768,-14.19270881
2.66963914,-14.39209230,-14.19292291
4.57639486,-13.91480638,-14.19409874
6.44105593,-13.21851331,-14.19373816
8.21716409,-12.30502080,-14.19310553
9.88396287,-11.14955930,-14.19301041
11.38858081,-9.72534346,-14.19281972
12.64622289,-8.04951782,-14.19316094
13.63949588,-6.16167860,-14.19282487
14.30904622,-4.11707624,-14.19244117
13.79998920,-1.83976337,-17.52918348
13.80544626,0.24829439,-17.52914737
13.43733562,2.33019709,-17.52917440
12.77517559,4.36304761,-17.52843717
11.89833361,6.36911670,-17.52948302
10.65563707,8.21288517,-17.52995433
9.12554244,9.88693698,-17.52893696
7.31460372,11.34124830,-17.52884360
5.24770698,12.46081009,-17.52991897
2.99805324,13.31109456,-17.52978041
0.59426644,13.70400900,-17.52900231
-1.85997332,13.68301664,-17.52898103
-4.31748462,13.27944637,-17.52910964
-6.65686326,12.38954691,-17.52895617
-8.76176844,11.03505502,-17.52929819
-10.67313103,9.43022419,-17.52926392
-12.15619021,7.41838818,-17.52908520
-13.39386313,5.28734803,-17.52926112
-14.19537550,2.96510582,-17.52932481
-14.59186716,0.56080187,-17.52914357
-14.58136306,-1.84326263,-17.52917463
-14.22747701,-4.18619178,-17.52913582
-13.46291949,-6.40920863,-17.52925856
-12.31413870,-8.41778290,-17.52962738
-10.83341729,-10.14396543,-17.52992994
-9.08729477,-11.52773719,-17.52969240
-7.21992064,-12.60467313,-17.52923928
-5.28361868,-13.37238001,-17.52942796
-3.29534008,-13.80895657,-17.52950340
-1.32046867,-13.96618142,-17.52954943
0.59770034,-13.90657847,-17.53010029
2.47215531,-13.70048177,-17.52966078
4.31435084,-13.27909493,-17.52949667
6.08873669,-12.62432603,-17.52979399
7.78876429,-11.74257557,-17.52885821
9.40413522,-10.64391662,-17.52912587
10.83483237,-9.27700007,-17.52982887
12.01389143,-7.66137609,-17.52826048
12.92413122,-5.85003422,-17.52856678
13.49020417,-3.88807653,-17.52982891
12.65135748,-2.06993077,-20.86513130
12.63267989,-0.19976180,-20.86542880
12.30310911,1.65718396,-20.86606521
11.70620968,3.46203351,-20.86615926
10.87296783,5.20907151,-20.86593166
9.68723149,6.76159019,-20.86531872
8.37301617,8.26665843,-20.86551938
6.70520353,9.40547792,-20.86580526
4.90216630,10.37736534,-20.86602899
2.94902688,11.11947658,-20.86571852
0.86257667,11.45935497,-20.86522258
-1.28628751,11.50948663,-20.86503233
-3.45840936,11.23005579,-20.86457260
-5.54997580,10.51026492,-20.86517106
-7.45875584,9.38138057,-20.86513887
-9.14325313,7.93397961,-20.86543271
-10.56322107,6.23592739,-20.86545199
-11.66595509,4.31844209,-20.86590756
-12.35455838,2.22477901,-20.86568641
-12.67318509,0.07881119,-20.86600274
-12.70518600,-2.06542507,-20.86531889
-12.30412612,-4.14754342,-20.86507343
-11.57853633,-6.10602274,-20.86490221
-10.59965254,-7.90295712,-20.86514789
-9.30920746,-9.45561858,-20.86560702
-7.77051242,-10.69539230,-20.86524164
-6.12418719,-11.67346500,-20.86444277
-4.40692612,-12.40339158,-20.86469683
-2.63887656,-12.83610740,-20.86517568
-0.87501681,-13.02323183,-20.86510129
0.85825438,-12.98907641,-20.86455869
2.56092262,-12.79242538,-20.86532572
4.22153958,-12.41919903,-20.86586189
5.82711922,-11.81412318,-20.86548523
7.35215398,-11.00136731,-20.86483199
8.80726331,-10.01014193,-20.86496266
10.08561159,-8.76937187,-20.86604993
